ply
format ascii 1.0
element vertex 1065
property float x
property float y
property float z
property uchar red
property uchar green
property uchar blue
element face 0
property list uchar int vertex_index
end_header
-346.000000 -1118.000000 -2028.000000 39 39 39
-346.000000 -1126.000000 -2028.000000 39 39 39
-346.000000 -1134.000000 -2028.000000 39 39 39
-346.000000 -1141.000000 -2028.000000 41 41 41
-346.000000 -1149.000000 -2028.000000 41 41 41
-346.000000 -1157.000000 -2028.000000 40 40 40
-346.000000 -1165.000000 -2028.000000 40 40 40
-346.000000 -1172.000000 -2028.000000 42 42 42
-346.000000 -1180.000000 -2028.000000 37 37 37
-346.000000 -1188.000000 -2028.000000 33 33 33
-346.000000 -1196.000000 -2028.000000 35 35 35
-346.000000 -1203.000000 -2028.000000 38 38 38
-346.000000 -1211.000000 -2028.000000 39 39 39
-346.000000 -1219.000000 -2028.000000 38 38 38
-346.000000 -1226.000000 -2028.000000 37 37 37
-346.000000 -1234.000000 -2028.000000 40 40 40
-346.000000 -1242.000000 -2028.000000 40 40 40
-346.000000 -1250.000000 -2028.000000 40 40 40
-344.000000 -1250.000000 -2016.000000 38 38 38
-344.000000 -1258.000000 -2016.000000 40 40 40
-346.000000 -1273.000000 -2028.000000 39 39 39
-346.000000 -1281.000000 -2028.000000 40 40 40
-346.000000 -1288.000000 -2028.000000 41 41 41
-346.000000 -1296.000000 -2028.000000 39 39 39
-344.000000 -1296.000000 -2016.000000 41 41 41
-344.000000 -1304.000000 -2016.000000 42 42 42
-344.000000 -1311.000000 -2016.000000 41 41 41
-344.000000 -1319.000000 -2016.000000 41 41 41
-344.000000 -1327.000000 -2016.000000 41 41 41
-344.000000 -1334.000000 -2016.000000 41 41 41
-344.000000 -1342.000000 -2016.000000 41 41 41
-344.000000 -1350.000000 -2016.000000 39 39 39
-344.000000 -1357.000000 -2016.000000 39 39 39
-344.000000 -1365.000000 -2016.000000 38 38 38
-342.000000 -1365.000000 -2005.000000 37 37 37
-340.000000 -1365.000000 -1993.000000 37 37 37
-340.000000 -1372.000000 -1993.000000 39 39 39
-340.000000 -1380.000000 -1993.000000 39 39 39
-353.000000 898.000000 -2028.000000 33 33 33
-351.000000 885.000000 -2016.000000 35 35 35
-353.000000 883.000000 -2028.000000 39 39 39
-353.000000 875.000000 -2028.000000 42 42 42
-353.000000 867.000000 -2028.000000 44 44 44
-353.000000 859.000000 -2028.000000 46 46 46
-356.000000 857.000000 -2040.000000 45 45 45
-362.000000 865.000000 -2078.000000 40 40 40
-362.000000 857.000000 -2078.000000 43 43 43
-383.000000 898.000000 -2198.000000 49 49 49
-388.000000 901.000000 -2226.000000 63 63 63
-388.000000 893.000000 -2226.000000 56 56 56
-388.000000 884.000000 -2226.000000 49 49 49
-386.000000 870.000000 -2212.000000 45 45 45
-388.000000 867.000000 -2226.000000 39 39 39
-388.000000 859.000000 -2226.000000 34 34 34
-388.000000 850.000000 -2226.000000 28 28 28
-388.000000 842.000000 -2226.000000 32 32 32
-388.000000 833.000000 -2226.000000 32 32 32
-388.000000 825.000000 -2226.000000 29 29 29
-386.000000 811.000000 -2212.000000 29 29 29
-388.000000 808.000000 -2226.000000 28 28 28
-388.000000 799.000000 -2226.000000 27 27 27
-386.000000 786.000000 -2212.000000 28 28 28
-388.000000 782.000000 -2226.000000 30 30 30
-386.000000 769.000000 -2212.000000 33 33 33
-388.000000 765.000000 -2226.000000 30 30 30
-388.000000 757.000000 -2226.000000 29 29 29
-388.000000 748.000000 -2226.000000 29 29 29
-388.000000 740.000000 -2226.000000 28 28 28
-388.000000 731.000000 -2226.000000 27 27 27
-388.000000 723.000000 -2226.000000 25 25 25
-388.000000 714.000000 -2226.000000 27 27 27
-388.000000 706.000000 -2226.000000 28 28 28
-388.000000 697.000000 -2226.000000 27 27 27
-388.000000 689.000000 -2226.000000 27 27 27
-391.000000 685.000000 -2241.000000 25 25 25
-388.000000 672.000000 -2226.000000 24 24 24
-388.000000 664.000000 -2226.000000 22 22 22
-388.000000 655.000000 -2226.000000 27 27 27
-388.000000 647.000000 -2226.000000 33 33 33
-388.000000 638.000000 -2226.000000 41 41 41
-388.000000 630.000000 -2226.000000 43 43 43
-388.000000 621.000000 -2226.000000 42 42 42
-391.000000 617.000000 -2241.000000 42 42 42
-391.000000 608.000000 -2241.000000 42 42 42
-391.000000 600.000000 -2241.000000 40 40 40
-391.000000 591.000000 -2241.000000 36 36 36
-388.000000 579.000000 -2226.000000 35 35 35
-388.000000 570.000000 -2226.000000 35 35 35
-388.000000 562.000000 -2226.000000 35 35 35
-388.000000 553.000000 -2226.000000 35 35 35
-386.000000 541.000000 -2212.000000 35 35 35
-388.000000 536.000000 -2226.000000 35 35 35
-388.000000 528.000000 -2226.000000 30 30 30
-388.000000 519.000000 -2226.000000 27 27 27
-388.000000 511.000000 -2226.000000 27 27 27
-388.000000 502.000000 -2226.000000 27 27 27
-388.000000 494.000000 -2226.000000 27 27 27
-388.000000 485.000000 -2226.000000 29 29 29
-388.000000 477.000000 -2226.000000 26 26 26
-388.000000 469.000000 -2226.000000 24 24 24
-388.000000 460.000000 -2226.000000 25 25 25
-386.000000 449.000000 -2212.000000 26 26 26
-386.000000 440.000000 -2212.000000 23 23 23
-386.000000 432.000000 -2212.000000 21 21 21
-386.000000 423.000000 -2212.000000 20 20 20
-388.000000 418.000000 -2226.000000 20 20 20
-388.000000 409.000000 -2226.000000 20 20 20
-386.000000 398.000000 -2212.000000 21 21 21
-386.000000 390.000000 -2212.000000 20 20 20
-386.000000 381.000000 -2212.000000 20 20 20
-386.000000 373.000000 -2212.000000 22 22 22
-386.000000 364.000000 -2212.000000 21 21 21
-386.000000 356.000000 -2212.000000 20 20 20
-386.000000 348.000000 -2212.000000 18 18 18
-386.000000 339.000000 -2212.000000 17 17 17
-386.000000 331.000000 -2212.000000 18 18 18
-386.000000 322.000000 -2212.000000 17 17 17
-383.000000 312.000000 -2198.000000 17 17 17
-386.000000 305.000000 -2212.000000 16 16 16
-386.000000 297.000000 -2212.000000 15 15 15
-386.000000 289.000000 -2212.000000 14 14 14
-386.000000 280.000000 -2212.000000 14 14 14
-386.000000 272.000000 -2212.000000 13 13 13
-386.000000 263.000000 -2212.000000 11 11 11
-386.000000 255.000000 -2212.000000 11 11 11
-383.000000 245.000000 -2198.000000 9 9 9
-386.000000 238.000000 -2212.000000 11 11 11
-386.000000 230.000000 -2212.000000 12 12 12
-386.000000 221.000000 -2212.000000 11 11 11
-386.000000 213.000000 -2212.000000 8 8 8
-386.000000 204.000000 -2212.000000 8 8 8
-383.000000 195.000000 -2198.000000 7 7 7
-383.000000 186.000000 -2198.000000 8 8 8
-383.000000 178.000000 -2198.000000 7 7 7
-383.000000 170.000000 -2198.000000 5 5 5
-383.000000 161.000000 -2198.000000 6 6 6
-386.000000 154.000000 -2212.000000 5 5 5
-386.000000 145.000000 -2212.000000 5 5 5
-383.000000 136.000000 -2198.000000 4 4 4
-383.000000 128.000000 -2198.000000 3 3 3
-381.000000 119.000000 -2184.000000 3 3 3
-383.000000 111.000000 -2198.000000 4 4 4
-381.000000 102.000000 -2184.000000 4 4 4
-381.000000 94.000000 -2184.000000 3 3 3
-381.000000 85.000000 -2184.000000 3 3 3
-381.000000 77.000000 -2184.000000 3 3 3
-381.000000 69.000000 -2184.000000 3 3 3
-378.000000 60.000000 -2170.000000 3 3 3
-381.000000 52.000000 -2184.000000 3 3 3
-381.000000 44.000000 -2184.000000 4 4 4
-381.000000 35.000000 -2184.000000 4 4 4
-383.000000 27.000000 -2198.000000 4 4 4
-381.000000 19.000000 -2184.000000 5 5 5
-381.000000 10.000000 -2184.000000 4 4 4
-378.000000 2.000000 -2170.000000 4 4 4
-378.000000 -6.000000 -2170.000000 5 5 5
-378.000000 -14.000000 -2170.000000 3 3 3
-378.000000 -23.000000 -2170.000000 3 3 3
-378.000000 -31.000000 -2170.000000 3 3 3
-378.000000 -39.000000 -2170.000000 4 4 4
-378.000000 -48.000000 -2170.000000 4 4 4
-378.000000 -56.000000 -2170.000000 4 4 4
-378.000000 -64.000000 -2170.000000 4 4 4
-378.000000 -72.000000 -2170.000000 5 5 5
-378.000000 -81.000000 -2170.000000 4 4 4
-378.000000 -89.000000 -2170.000000 4 4 4
-378.000000 -97.000000 -2170.000000 4 4 4
-378.000000 -105.000000 -2170.000000 4 4 4
-378.000000 -114.000000 -2170.000000 3 3 3
-376.000000 -121.000000 -2156.000000 4 4 4
-376.000000 -129.000000 -2156.000000 5 5 5
-376.000000 -138.000000 -2156.000000 5 5 5
-376.000000 -146.000000 -2156.000000 5 5 5
-378.000000 -155.000000 -2170.000000 5 5 5
-378.000000 -163.000000 -2170.000000 6 6 6
-378.000000 -172.000000 -2170.000000 4 4 4
-376.000000 -179.000000 -2156.000000 5 5 5
-376.000000 -187.000000 -2156.000000 6 6 6
-376.000000 -195.000000 -2156.000000 5 5 5
-376.000000 -203.000000 -2156.000000 6 6 6
-376.000000 -211.000000 -2156.000000 5 5 5
-376.000000 -220.000000 -2156.000000 5 5 5
-378.000000 -229.000000 -2170.000000 4 4 4
-376.000000 -236.000000 -2156.000000 2 2 2
-376.000000 -244.000000 -2156.000000 3 3 3
-376.000000 -253.000000 -2156.000000 3 3 3
-376.000000 -261.000000 -2156.000000 4 4 4
-376.000000 -269.000000 -2156.000000 4 4 4
-376.000000 -277.000000 -2156.000000 6 6 6
-376.000000 -285.000000 -2156.000000 5 5 5
-376.000000 -294.000000 -2156.000000 6 6 6
-376.000000 -302.000000 -2156.000000 7 7 7
-378.000000 -312.000000 -2170.000000 7 7 7
-378.000000 -320.000000 -2170.000000 6 6 6
-378.000000 -329.000000 -2170.000000 7 7 7
-378.000000 -337.000000 -2170.000000 6 6 6
-378.000000 -345.000000 -2170.000000 4 4 4
-378.000000 -353.000000 -2170.000000 4 4 4
-378.000000 -362.000000 -2170.000000 4 4 4
-378.000000 -370.000000 -2170.000000 4 4 4
-376.000000 -376.000000 -2156.000000 4 4 4
-376.000000 -384.000000 -2156.000000 5 5 5
-376.000000 -392.000000 -2156.000000 4 4 4
-376.000000 -400.000000 -2156.000000 4 4 4
-376.000000 -409.000000 -2156.000000 5 5 5
-376.000000 -417.000000 -2156.000000 5 5 5
-376.000000 -425.000000 -2156.000000 6 6 6
-376.000000 -433.000000 -2156.000000 7 7 7
-376.000000 -441.000000 -2156.000000 6 6 6
-376.000000 -450.000000 -2156.000000 6 6 6
-376.000000 -458.000000 -2156.000000 7 7 7
-376.000000 -466.000000 -2156.000000 8 8 8
-376.000000 -474.000000 -2156.000000 9 9 9
-376.000000 -483.000000 -2156.000000 9 9 9
-376.000000 -491.000000 -2156.000000 10 10 10
-373.000000 -496.000000 -2143.000000 10 10 10
-373.000000 -504.000000 -2143.000000 12 12 12
-373.000000 -512.000000 -2143.000000 13 13 13
-373.000000 -520.000000 -2143.000000 14 14 14
-371.000000 -525.000000 -2129.000000 13 13 13
-371.000000 -533.000000 -2129.000000 13 13 13
-371.000000 -541.000000 -2129.000000 13 13 13
-371.000000 -549.000000 -2129.000000 12 12 12
-371.000000 -558.000000 -2129.000000 12 12 12
-371.000000 -566.000000 -2129.000000 14 14 14
-371.000000 -574.000000 -2129.000000 14 14 14
-371.000000 -582.000000 -2129.000000 16 16 16
-371.000000 -590.000000 -2129.000000 19 19 19
-371.000000 -598.000000 -2129.000000 18 18 18
-371.000000 -606.000000 -2129.000000 17 17 17
-369.000000 -611.000000 -2116.000000 18 18 18
-369.000000 -619.000000 -2116.000000 18 18 18
-369.000000 -627.000000 -2116.000000 21 21 21
-369.000000 -635.000000 -2116.000000 21 21 21
-369.000000 -643.000000 -2116.000000 23 23 23
-369.000000 -651.000000 -2116.000000 22 22 22
-371.000000 -663.000000 -2129.000000 22 22 22
-371.000000 -671.000000 -2129.000000 24 24 24
-371.000000 -679.000000 -2129.000000 24 24 24
-371.000000 -687.000000 -2129.000000 26 26 26
-371.000000 -695.000000 -2129.000000 27 27 27
-369.000000 -699.000000 -2116.000000 26 26 26
-369.000000 -707.000000 -2116.000000 25 25 25
-369.000000 -715.000000 -2116.000000 27 27 27
-369.000000 -723.000000 -2116.000000 27 27 27
-369.000000 -732.000000 -2116.000000 28 28 28
-367.000000 -735.000000 -2103.000000 31 31 31
-367.000000 -743.000000 -2103.000000 30 30 30
-367.000000 -751.000000 -2103.000000 30 30 30
-364.000000 -754.000000 -2090.000000 29 29 29
-367.000000 -767.000000 -2103.000000 28 28 28
-367.000000 -775.000000 -2103.000000 29 29 29
-367.000000 -783.000000 -2103.000000 29 29 29
-364.000000 -786.000000 -2090.000000 28 28 28
-364.000000 -794.000000 -2090.000000 28 28 28
-364.000000 -802.000000 -2090.000000 30 30 30
-362.000000 -805.000000 -2078.000000 29 29 29
-362.000000 -813.000000 -2078.000000 30 30 30
-362.000000 -821.000000 -2078.000000 29 29 29
-362.000000 -829.000000 -2078.000000 28 28 28
-362.000000 -837.000000 -2078.000000 29 29 29
-362.000000 -845.000000 -2078.000000 30 30 30
-362.000000 -853.000000 -2078.000000 30 30 30
-362.000000 -861.000000 -2078.000000 29 29 29
-362.000000 -869.000000 -2078.000000 32 32 32
-362.000000 -877.000000 -2078.000000 32 32 32
-362.000000 -885.000000 -2078.000000 29 29 29
-362.000000 -893.000000 -2078.000000 28 28 28
-362.000000 -900.000000 -2078.000000 27 27 27
-360.000000 -903.000000 -2065.000000 28 28 28
-360.000000 -911.000000 -2065.000000 28 28 28
-360.000000 -918.000000 -2065.000000 29 29 29
-360.000000 -926.000000 -2065.000000 33 33 33
-358.000000 -929.000000 -2053.000000 33 33 33
-358.000000 -937.000000 -2053.000000 34 34 34
-358.000000 -944.000000 -2053.000000 31 31 31
-358.000000 -952.000000 -2053.000000 31 31 31
-358.000000 -960.000000 -2053.000000 32 32 32
-356.000000 -962.000000 -2040.000000 35 35 35
-356.000000 -969.000000 -2040.000000 33 33 33
-358.000000 -983.000000 -2053.000000 38 38 38
-356.000000 -985.000000 -2040.000000 38 38 38
-356.000000 -993.000000 -2040.000000 38 38 38
-356.000000 -1001.000000 -2040.000000 39 39 39
-356.000000 -1008.000000 -2040.000000 38 38 38
-356.000000 -1016.000000 -2040.000000 37 37 37
-356.000000 -1024.000000 -2040.000000 38 38 38
-356.000000 -1032.000000 -2040.000000 37 37 37
-353.000000 -1033.000000 -2028.000000 39 39 39
-353.000000 -1041.000000 -2028.000000 37 37 37
-353.000000 -1049.000000 -2028.000000 39 39 39
-353.000000 -1056.000000 -2028.000000 36 36 36
-353.000000 -1064.000000 -2028.000000 37 37 37
-353.000000 -1072.000000 -2028.000000 39 39 39
-353.000000 -1080.000000 -2028.000000 41 41 41
-353.000000 -1087.000000 -2028.000000 41 41 41
-353.000000 -1095.000000 -2028.000000 42 42 42
-353.000000 -1103.000000 -2028.000000 42 42 42
-353.000000 -1111.000000 -2028.000000 43 43 43
-353.000000 -1118.000000 -2028.000000 40 40 40
-351.000000 -1119.000000 -2016.000000 39 39 39
-351.000000 -1127.000000 -2016.000000 39 39 39
-353.000000 -1141.000000 -2028.000000 38 38 38
-353.000000 -1149.000000 -2028.000000 41 41 41
-353.000000 -1157.000000 -2028.000000 41 41 41
-353.000000 -1165.000000 -2028.000000 40 40 40
-353.000000 -1172.000000 -2028.000000 41 41 41
-351.000000 -1173.000000 -2016.000000 39 39 39
-351.000000 -1181.000000 -2016.000000 36 36 36
-351.000000 -1188.000000 -2016.000000 38 38 38
-351.000000 -1196.000000 -2016.000000 40 40 40
-353.000000 -1211.000000 -2028.000000 40 40 40
-353.000000 -1219.000000 -2028.000000 39 39 39
-351.000000 -1219.000000 -2016.000000 37 37 37
-351.000000 -1227.000000 -2016.000000 38 38 38
-351.000000 -1235.000000 -2016.000000 39 39 39
-351.000000 -1242.000000 -2016.000000 39 39 39
-351.000000 -1250.000000 -2016.000000 38 38 38
-349.000000 -1251.000000 -2005.000000 41 41 41
-351.000000 -1265.000000 -2016.000000 41 41 41
-351.000000 -1273.000000 -2016.000000 42 42 42
-351.000000 -1281.000000 -2016.000000 40 40 40
-351.000000 -1288.000000 -2016.000000 39 39 39
-349.000000 -1289.000000 -2005.000000 43 43 43
-349.000000 -1297.000000 -2005.000000 40 40 40
-349.000000 -1304.000000 -2005.000000 38 38 38
-351.000000 -1319.000000 -2016.000000 40 40 40
-351.000000 -1327.000000 -2016.000000 41 41 41
-351.000000 -1334.000000 -2016.000000 41 41 41
-349.000000 -1335.000000 -2005.000000 40 40 40
-349.000000 -1342.000000 -2005.000000 40 40 40
-349.000000 -1350.000000 -2005.000000 41 41 41
-347.000000 -1350.000000 -1993.000000 40 40 40
-347.000000 -1357.000000 -1993.000000 37 37 37
-345.000000 -1357.000000 -1981.000000 38 38 38
-345.000000 -1364.000000 -1981.000000 36 36 36
-359.000000 900.000000 -2016.000000 35 35 35
-359.000000 893.000000 -2016.000000 34 34 34
-359.000000 885.000000 -2016.000000 35 35 35
-359.000000 877.000000 -2016.000000 36 36 36
-359.000000 870.000000 -2016.000000 38 38 38
-359.000000 862.000000 -2016.000000 40 40 40
-359.000000 854.000000 -2016.000000 45 45 45
-359.000000 847.000000 -2016.000000 48 48 48
-361.000000 844.000000 -2028.000000 47 47 47
-353.000000 817.000000 -1981.000000 47 47 47
-391.000000 898.000000 -2198.000000 49 49 49
-394.000000 895.000000 -2212.000000 54 54 54
-394.000000 887.000000 -2212.000000 48 48 48
-394.000000 878.000000 -2212.000000 49 49 49
-394.000000 870.000000 -2212.000000 46 46 46
-394.000000 862.000000 -2212.000000 44 44 44
-394.000000 853.000000 -2212.000000 39 39 39
-394.000000 845.000000 -2212.000000 35 35 35
-394.000000 836.000000 -2212.000000 37 37 37
-394.000000 828.000000 -2212.000000 32 32 32
-394.000000 819.000000 -2212.000000 29 29 29
-394.000000 811.000000 -2212.000000 28 28 28
-394.000000 803.000000 -2212.000000 28 28 28
-394.000000 794.000000 -2212.000000 28 28 28
-394.000000 786.000000 -2212.000000 29 29 29
-394.000000 777.000000 -2212.000000 33 33 33
-394.000000 769.000000 -2212.000000 32 32 32
-396.000000 765.000000 -2226.000000 28 28 28
-394.000000 752.000000 -2212.000000 28 28 28
-394.000000 744.000000 -2212.000000 29 29 29
-396.000000 740.000000 -2226.000000 28 28 28
-394.000000 727.000000 -2212.000000 27 27 27
-394.000000 718.000000 -2212.000000 28 28 28
-394.000000 710.000000 -2212.000000 29 29 29
-394.000000 702.000000 -2212.000000 27 27 27
-394.000000 693.000000 -2212.000000 26 26 26
-394.000000 685.000000 -2212.000000 28 28 28
-394.000000 676.000000 -2212.000000 26 26 26
-394.000000 668.000000 -2212.000000 24 24 24
-394.000000 659.000000 -2212.000000 21 21 21
-396.000000 655.000000 -2226.000000 21 21 21
-396.000000 647.000000 -2226.000000 26 26 26
-396.000000 638.000000 -2226.000000 36 36 36
-396.000000 630.000000 -2226.000000 40 40 40
-396.000000 621.000000 -2226.000000 42 42 42
-396.000000 613.000000 -2226.000000 42 42 42
-396.000000 604.000000 -2226.000000 41 41 41
-396.000000 596.000000 -2226.000000 40 40 40
-396.000000 587.000000 -2226.000000 36 36 36
-396.000000 579.000000 -2226.000000 36 36 36
-394.000000 567.000000 -2212.000000 37 37 37
-394.000000 558.000000 -2212.000000 36 36 36
-394.000000 550.000000 -2212.000000 36 36 36
-394.000000 541.000000 -2212.000000 36 36 36
-394.000000 533.000000 -2212.000000 33 33 33
-394.000000 525.000000 -2212.000000 30 30 30
-394.000000 516.000000 -2212.000000 29 29 29
-394.000000 508.000000 -2212.000000 28 28 28
-394.000000 499.000000 -2212.000000 27 27 27
-394.000000 491.000000 -2212.000000 29 29 29
-394.000000 482.000000 -2212.000000 28 28 28
-394.000000 474.000000 -2212.000000 28 28 28
-394.000000 466.000000 -2212.000000 25 25 25
-394.000000 457.000000 -2212.000000 26 26 26
-394.000000 449.000000 -2212.000000 25 25 25
-394.000000 440.000000 -2212.000000 24 24 24
-394.000000 432.000000 -2212.000000 23 23 23
-394.000000 423.000000 -2212.000000 22 22 22
-394.000000 415.000000 -2212.000000 20 20 20
-394.000000 407.000000 -2212.000000 21 21 21
-394.000000 398.000000 -2212.000000 24 24 24
-394.000000 390.000000 -2212.000000 23 23 23
-394.000000 381.000000 -2212.000000 23 23 23
-394.000000 373.000000 -2212.000000 23 23 23
-394.000000 364.000000 -2212.000000 21 21 21
-394.000000 356.000000 -2212.000000 19 19 19
-394.000000 348.000000 -2212.000000 20 20 20
-391.000000 337.000000 -2198.000000 18 18 18
-391.000000 329.000000 -2198.000000 21 21 21
-391.000000 320.000000 -2198.000000 19 19 19
-389.000000 310.000000 -2184.000000 16 16 16
-389.000000 302.000000 -2184.000000 15 15 15
-389.000000 293.000000 -2184.000000 14 14 14
-389.000000 285.000000 -2184.000000 13 13 13
-389.000000 277.000000 -2184.000000 14 14 14
-389.000000 268.000000 -2184.000000 14 14 14
-389.000000 260.000000 -2184.000000 12 12 12
-389.000000 252.000000 -2184.000000 12 12 12
-389.000000 243.000000 -2184.000000 11 11 11
-391.000000 237.000000 -2198.000000 12 12 12
-391.000000 228.000000 -2198.000000 12 12 12
-391.000000 220.000000 -2198.000000 12 12 12
-391.000000 211.000000 -2198.000000 11 11 11
-389.000000 202.000000 -2184.000000 10 10 10
-389.000000 193.000000 -2184.000000 7 7 7
-389.000000 185.000000 -2184.000000 8 8 8
-389.000000 177.000000 -2184.000000 6 6 6
-389.000000 168.000000 -2184.000000 5 5 5
-389.000000 160.000000 -2184.000000 6 6 6
-389.000000 152.000000 -2184.000000 7 7 7
-389.000000 144.000000 -2184.000000 6 6 6
-389.000000 135.000000 -2184.000000 5 5 5
-389.000000 127.000000 -2184.000000 4 4 4
-386.000000 118.000000 -2170.000000 4 4 4
-386.000000 110.000000 -2170.000000 5 5 5
-386.000000 101.000000 -2170.000000 5 5 5
-386.000000 93.000000 -2170.000000 4 4 4
-386.000000 85.000000 -2170.000000 4 4 4
-386.000000 76.000000 -2170.000000 3 3 3
-386.000000 68.000000 -2170.000000 3 3 3
-386.000000 60.000000 -2170.000000 3 3 3
-386.000000 52.000000 -2170.000000 4 4 4
-386.000000 43.000000 -2170.000000 4 4 4
-386.000000 35.000000 -2170.000000 6 6 6
-386.000000 27.000000 -2170.000000 6 6 6
-386.000000 19.000000 -2170.000000 6 6 6
-386.000000 10.000000 -2170.000000 5 5 5
-384.000000 2.000000 -2156.000000 5 5 5
-384.000000 -6.000000 -2156.000000 6 6 6
-384.000000 -14.000000 -2156.000000 5 5 5
-384.000000 -23.000000 -2156.000000 4 4 4
-384.000000 -31.000000 -2156.000000 4 4 4
-384.000000 -39.000000 -2156.000000 4 4 4
-384.000000 -47.000000 -2156.000000 4 4 4
-384.000000 -55.000000 -2156.000000 4 4 4
-384.000000 -64.000000 -2156.000000 4 4 4
-384.000000 -72.000000 -2156.000000 4 4 4
-384.000000 -80.000000 -2156.000000 4 4 4
-384.000000 -88.000000 -2156.000000 4 4 4
-386.000000 -97.000000 -2170.000000 4 4 4
-384.000000 -105.000000 -2156.000000 4 4 4
-384.000000 -113.000000 -2156.000000 4 4 4
-384.000000 -121.000000 -2156.000000 5 5 5
-384.000000 -129.000000 -2156.000000 5 5 5
-384.000000 -138.000000 -2156.000000 5 5 5
-384.000000 -146.000000 -2156.000000 4 4 4
-384.000000 -154.000000 -2156.000000 3 3 3
-384.000000 -162.000000 -2156.000000 5 5 5
-384.000000 -170.000000 -2156.000000 6 6 6
-384.000000 -179.000000 -2156.000000 6 6 6
-384.000000 -187.000000 -2156.000000 6 6 6
-384.000000 -195.000000 -2156.000000 6 6 6
-384.000000 -203.000000 -2156.000000 6 6 6
-384.000000 -211.000000 -2156.000000 6 6 6
-384.000000 -220.000000 -2156.000000 5 5 5
-384.000000 -228.000000 -2156.000000 4 4 4
-384.000000 -236.000000 -2156.000000 4 4 4
-382.000000 -243.000000 -2143.000000 5 5 5
-379.000000 -249.000000 -2129.000000 5 5 5
-379.000000 -258.000000 -2129.000000 6 6 6
-379.000000 -266.000000 -2129.000000 7 7 7
-379.000000 -274.000000 -2129.000000 9 9 9
-379.000000 -282.000000 -2129.000000 8 8 8
-382.000000 -292.000000 -2143.000000 8 8 8
-382.000000 -300.000000 -2143.000000 8 8 8
-384.000000 -310.000000 -2156.000000 8 8 8
-384.000000 -318.000000 -2156.000000 9 9 9
-384.000000 -326.000000 -2156.000000 7 7 7
-384.000000 -335.000000 -2156.000000 6 6 6
-386.000000 -345.000000 -2170.000000 5 5 5
-386.000000 -353.000000 -2170.000000 5 5 5
-384.000000 -359.000000 -2156.000000 5 5 5
-384.000000 -368.000000 -2156.000000 5 5 5
-384.000000 -376.000000 -2156.000000 6 6 6
-382.000000 -382.000000 -2143.000000 5 5 5
-382.000000 -390.000000 -2143.000000 4 4 4
-382.000000 -398.000000 -2143.000000 6 6 6
-382.000000 -406.000000 -2143.000000 7 7 7
-382.000000 -414.000000 -2143.000000 7 7 7
-379.000000 -420.000000 -2129.000000 7 7 7
-379.000000 -428.000000 -2129.000000 8 8 8
-379.000000 -436.000000 -2129.000000 6 6 6
-382.000000 -447.000000 -2143.000000 7 7 7
-382.000000 -455.000000 -2143.000000 8 8 8
-382.000000 -463.000000 -2143.000000 8 8 8
-382.000000 -471.000000 -2143.000000 10 10 10
-382.000000 -480.000000 -2143.000000 10 10 10
-382.000000 -488.000000 -2143.000000 10 10 10
-379.000000 -493.000000 -2129.000000 11 11 11
-379.000000 -501.000000 -2129.000000 11 11 11
-379.000000 -509.000000 -2129.000000 12 12 12
-379.000000 -517.000000 -2129.000000 13 13 13
-379.000000 -525.000000 -2129.000000 12 12 12
-379.000000 -533.000000 -2129.000000 15 15 15
-377.000000 -538.000000 -2116.000000 15 15 15
-377.000000 -546.000000 -2116.000000 16 16 16
-379.000000 -558.000000 -2129.000000 15 15 15
-377.000000 -562.000000 -2116.000000 16 16 16
-379.000000 -574.000000 -2129.000000 16 16 16
-377.000000 -578.000000 -2116.000000 19 19 19
-377.000000 -586.000000 -2116.000000 20 20 20
-377.000000 -594.000000 -2116.000000 19 19 19
-377.000000 -603.000000 -2116.000000 19 19 19
-377.000000 -611.000000 -2116.000000 19 19 19
-377.000000 -619.000000 -2116.000000 19 19 19
-377.000000 -627.000000 -2116.000000 19 19 19
-377.000000 -635.000000 -2116.000000 22 22 22
-377.000000 -643.000000 -2116.000000 22 22 22
-377.000000 -651.000000 -2116.000000 21 21 21
-377.000000 -659.000000 -2116.000000 22 22 22
-377.000000 -667.000000 -2116.000000 24 24 24
-375.000000 -671.000000 -2103.000000 27 27 27
-375.000000 -679.000000 -2103.000000 28 28 28
-375.000000 -687.000000 -2103.000000 29 29 29
-375.000000 -695.000000 -2103.000000 25 25 25
-375.000000 -703.000000 -2103.000000 26 26 26
-372.000000 -707.000000 -2090.000000 29 29 29
-372.000000 -715.000000 -2090.000000 29 29 29
-372.000000 -723.000000 -2090.000000 28 28 28
-372.000000 -731.000000 -2090.000000 30 30 30
-370.000000 -734.000000 -2078.000000 30 30 30
-370.000000 -742.000000 -2078.000000 29 29 29
-370.000000 -750.000000 -2078.000000 28 28 28
-372.000000 -762.000000 -2090.000000 27 27 27
-370.000000 -766.000000 -2078.000000 31 31 31
-370.000000 -774.000000 -2078.000000 30 30 30
-370.000000 -782.000000 -2078.000000 26 26 26
-370.000000 -790.000000 -2078.000000 29 29 29
-370.000000 -798.000000 -2078.000000 29 29 29
-370.000000 -805.000000 -2078.000000 29 29 29
-368.000000 -808.000000 -2065.000000 31 31 31
-368.000000 -816.000000 -2065.000000 31 31 31
-368.000000 -824.000000 -2065.000000 29 29 29
-368.000000 -832.000000 -2065.000000 30 30 30
-368.000000 -840.000000 -2065.000000 31 31 31
-368.000000 -848.000000 -2065.000000 32 32 32
-368.000000 -856.000000 -2065.000000 29 29 29
-368.000000 -863.000000 -2065.000000 29 29 29
-368.000000 -871.000000 -2065.000000 30 30 30
-368.000000 -879.000000 -2065.000000 30 30 30
-368.000000 -887.000000 -2065.000000 29 29 29
-368.000000 -895.000000 -2065.000000 27 27 27
-368.000000 -903.000000 -2065.000000 29 29 29
-366.000000 -905.000000 -2053.000000 27 27 27
-366.000000 -913.000000 -2053.000000 28 28 28
-366.000000 -921.000000 -2053.000000 30 30 30
-366.000000 -929.000000 -2053.000000 31 31 31
-363.000000 -931.000000 -2040.000000 33 33 33
-363.000000 -938.000000 -2040.000000 34 34 34
-363.000000 -946.000000 -2040.000000 28 28 28
-363.000000 -954.000000 -2040.000000 28 28 28
-361.000000 -956.000000 -2028.000000 31 31 31
-363.000000 -969.000000 -2040.000000 32 32 32
-363.000000 -977.000000 -2040.000000 35 35 35
-361.000000 -979.000000 -2028.000000 39 39 39
-361.000000 -987.000000 -2028.000000 38 38 38
-361.000000 -995.000000 -2028.000000 38 38 38
-361.000000 -1002.000000 -2028.000000 39 39 39
-361.000000 -1010.000000 -2028.000000 38 38 38
-361.000000 -1018.000000 -2028.000000 38 38 38
-361.000000 -1026.000000 -2028.000000 39 39 39
-361.000000 -1033.000000 -2028.000000 39 39 39
-361.000000 -1041.000000 -2028.000000 38 38 38
-361.000000 -1049.000000 -2028.000000 38 38 38
-359.000000 -1050.000000 -2016.000000 38 38 38
-359.000000 -1058.000000 -2016.000000 39 39 39
-359.000000 -1066.000000 -2016.000000 38 38 38
-359.000000 -1073.000000 -2016.000000 39 39 39
-359.000000 -1081.000000 -2016.000000 38 38 38
-359.000000 -1089.000000 -2016.000000 38 38 38
-359.000000 -1096.000000 -2016.000000 39 39 39
-359.000000 -1104.000000 -2016.000000 41 41 41
-357.000000 -1106.000000 -2005.000000 39 39 39
-357.000000 -1113.000000 -2005.000000 38 38 38
-357.000000 -1121.000000 -2005.000000 38 38 38
-359.000000 -1135.000000 -2016.000000 36 36 36
-359.000000 -1142.000000 -2016.000000 40 40 40
-359.000000 -1150.000000 -2016.000000 41 41 41
-359.000000 -1158.000000 -2016.000000 40 40 40
-359.000000 -1165.000000 -2016.000000 41 41 41
-359.000000 -1173.000000 -2016.000000 41 41 41
-359.000000 -1181.000000 -2016.000000 37 37 37
-359.000000 -1188.000000 -2016.000000 40 40 40
-359.000000 -1196.000000 -2016.000000 40 40 40
-359.000000 -1204.000000 -2016.000000 41 41 41
-359.000000 -1212.000000 -2016.000000 39 39 39
-359.000000 -1219.000000 -2016.000000 37 37 37
-359.000000 -1227.000000 -2016.000000 38 38 38
-359.000000 -1235.000000 -2016.000000 40 40 40
-357.000000 -1235.000000 -2005.000000 41 41 41
-357.000000 -1243.000000 -2005.000000 39 39 39
-355.000000 -1243.000000 -1993.000000 40 40 40
-357.000000 -1258.000000 -2005.000000 41 41 41
-357.000000 -1266.000000 -2005.000000 41 41 41
-357.000000 -1274.000000 -2005.000000 40 40 40
-357.000000 -1281.000000 -2005.000000 40 40 40
-357.000000 -1289.000000 -2005.000000 44 44 44
-355.000000 -1289.000000 -1993.000000 41 41 41
-355.000000 -1296.000000 -1993.000000 40 40 40
-357.000000 -1312.000000 -2005.000000 41 41 41
-357.000000 -1319.000000 -2005.000000 41 41 41
-357.000000 -1327.000000 -2005.000000 40 40 40
-355.000000 -1327.000000 -1993.000000 39 39 39
-355.000000 -1334.000000 -1993.000000 39 39 39
-355.000000 -1342.000000 -1993.000000 40 40 40
-355.000000 -1350.000000 -1993.000000 41 41 41
-353.000000 -1349.000000 -1981.000000 39 39 39
-353.000000 -1357.000000 -1981.000000 41 41 41
-351.000000 -1356.000000 -1970.000000 41 41 41
-365.000000 896.000000 -2005.000000 36 36 36
-365.000000 888.000000 -2005.000000 36 36 36
-363.000000 875.000000 -1993.000000 36 36 36
-365.000000 873.000000 -2005.000000 36 36 36
-365.000000 865.000000 -2005.000000 36 36 36
-365.000000 857.000000 -2005.000000 38 38 38
-365.000000 850.000000 -2005.000000 43 43 43
-365.000000 842.000000 -2005.000000 44 44 44
-365.000000 834.000000 -2005.000000 47 47 47
-365.000000 827.000000 -2005.000000 49 49 49
-358.000000 805.000000 -1970.000000 44 44 44
-367.000000 816.000000 -2016.000000 41 41 41
-402.000000 887.000000 -2212.000000 40 40 40
-400.000000 873.000000 -2198.000000 39 39 39
-400.000000 865.000000 -2198.000000 42 42 42
-397.000000 851.000000 -2184.000000 45 45 45
-397.000000 842.000000 -2184.000000 40 40 40
-397.000000 834.000000 -2184.000000 39 39 39
-397.000000 826.000000 -2184.000000 41 41 41
-400.000000 823.000000 -2198.000000 39 39 39
-397.000000 809.000000 -2184.000000 35 35 35
-400.000000 806.000000 -2198.000000 32 32 32
-397.000000 792.000000 -2184.000000 29 29 29
-397.000000 784.000000 -2184.000000 29 29 29
-400.000000 781.000000 -2198.000000 30 30 30
-400.000000 772.000000 -2198.000000 31 31 31
-400.000000 764.000000 -2198.000000 29 29 29
-402.000000 761.000000 -2212.000000 28 28 28
-402.000000 752.000000 -2212.000000 27 27 27
-402.000000 744.000000 -2212.000000 29 29 29
-402.000000 735.000000 -2212.000000 28 28 28
-400.000000 722.000000 -2198.000000 28 28 28
-402.000000 718.000000 -2212.000000 28 28 28
-402.000000 710.000000 -2212.000000 29 29 29
-402.000000 702.000000 -2212.000000 28 28 28
-402.000000 693.000000 -2212.000000 28 28 28
-402.000000 685.000000 -2212.000000 28 28 28
-402.000000 676.000000 -2212.000000 27 27 27
-402.000000 668.000000 -2212.000000 24 24 24
-402.000000 659.000000 -2212.000000 15 15 15
-402.000000 651.000000 -2212.000000 17 17 17
-402.000000 643.000000 -2212.000000 23 23 23
-402.000000 634.000000 -2212.000000 31 31 31
-402.000000 626.000000 -2212.000000 35 35 35
-402.000000 617.000000 -2212.000000 38 38 38
-402.000000 609.000000 -2212.000000 38 38 38
-402.000000 600.000000 -2212.000000 38 38 38
-402.000000 592.000000 -2212.000000 40 40 40
-400.000000 580.000000 -2198.000000 39 39 39
-402.000000 575.000000 -2212.000000 40 40 40
-400.000000 563.000000 -2198.000000 38 38 38
-400.000000 555.000000 -2198.000000 37 37 37
-400.000000 546.000000 -2198.000000 38 38 38
-400.000000 538.000000 -2198.000000 36 36 36
-400.000000 530.000000 -2198.000000 33 33 33
-402.000000 525.000000 -2212.000000 31 31 31
-402.000000 516.000000 -2212.000000 29 29 29
-402.000000 508.000000 -2212.000000 29 29 29
-400.000000 496.000000 -2198.000000 28 28 28
-402.000000 491.000000 -2212.000000 30 30 30
-402.000000 482.000000 -2212.000000 30 30 30
-402.000000 474.000000 -2212.000000 29 29 29
-402.000000 466.000000 -2212.000000 28 28 28
-402.000000 457.000000 -2212.000000 28 28 28
-402.000000 449.000000 -2212.000000 25 25 25
-400.000000 438.000000 -2198.000000 24 24 24
-400.000000 429.000000 -2198.000000 24 24 24
-400.000000 421.000000 -2198.000000 23 23 23
-400.000000 412.000000 -2198.000000 21 21 21
-400.000000 404.000000 -2198.000000 22 22 22
-397.000000 393.000000 -2184.000000 22 22 22
-397.000000 385.000000 -2184.000000 23 23 23
-397.000000 376.000000 -2184.000000 23 23 23
-400.000000 371.000000 -2198.000000 23 23 23
-400.000000 362.000000 -2198.000000 23 23 23
-400.000000 354.000000 -2198.000000 20 20 20
-397.000000 343.000000 -2184.000000 21 21 21
-397.000000 335.000000 -2184.000000 20 20 20
-397.000000 327.000000 -2184.000000 20 20 20
-397.000000 318.000000 -2184.000000 19 19 19
-397.000000 310.000000 -2184.000000 16 16 16
-395.000000 300.000000 -2170.000000 16 16 16
-395.000000 291.000000 -2170.000000 14 14 14
-395.000000 283.000000 -2170.000000 14 14 14
-395.000000 275.000000 -2170.000000 15 15 15
-395.000000 267.000000 -2170.000000 15 15 15
-395.000000 258.000000 -2170.000000 14 14 14
-395.000000 250.000000 -2170.000000 14 14 14
-395.000000 242.000000 -2170.000000 14 14 14
-395.000000 234.000000 -2170.000000 15 15 15
-395.000000 225.000000 -2170.000000 13 13 13
-395.000000 217.000000 -2170.000000 13 13 13
-397.000000 210.000000 -2184.000000 12 12 12
-395.000000 200.000000 -2170.000000 12 12 12
-395.000000 192.000000 -2170.000000 10 10 10
-395.000000 184.000000 -2170.000000 9 9 9
-395.000000 176.000000 -2170.000000 8 8 8
-395.000000 167.000000 -2170.000000 7 7 7
-395.000000 159.000000 -2170.000000 8 8 8
-395.000000 151.000000 -2170.000000 9 9 9
-392.000000 142.000000 -2156.000000 8 8 8
-392.000000 133.000000 -2156.000000 7 7 7
-392.000000 125.000000 -2156.000000 6 6 6
-392.000000 117.000000 -2156.000000 6 6 6
-395.000000 110.000000 -2170.000000 6 6 6
-395.000000 101.000000 -2170.000000 6 6 6
-392.000000 92.000000 -2156.000000 5 5 5
-392.000000 84.000000 -2156.000000 5 5 5
-392.000000 76.000000 -2156.000000 5 5 5
-392.000000 68.000000 -2156.000000 5 5 5
-392.000000 60.000000 -2156.000000 4 4 4
-392.000000 51.000000 -2156.000000 5 5 5
-392.000000 43.000000 -2156.000000 5 5 5
-392.000000 35.000000 -2156.000000 6 6 6
-392.000000 27.000000 -2156.000000 6 6 6
-392.000000 18.000000 -2156.000000 6 6 6
-392.000000 10.000000 -2156.000000 8 8 8
-392.000000 2.000000 -2156.000000 7 7 7
-392.000000 -6.000000 -2156.000000 6 6 6
-392.000000 -14.000000 -2156.000000 5 5 5
-392.000000 -23.000000 -2156.000000 5 5 5
-392.000000 -31.000000 -2156.000000 5 5 5
-392.000000 -39.000000 -2156.000000 5 5 5
-392.000000 -47.000000 -2156.000000 5 5 5
-392.000000 -55.000000 -2156.000000 5 5 5
-392.000000 -64.000000 -2156.000000 4 4 4
-392.000000 -72.000000 -2156.000000 5 5 5
-392.000000 -80.000000 -2156.000000 5 5 5
-392.000000 -88.000000 -2156.000000 5 5 5
-392.000000 -97.000000 -2156.000000 4 4 4
-392.000000 -105.000000 -2156.000000 4 4 4
-390.000000 -112.000000 -2143.000000 5 5 5
-390.000000 -120.000000 -2143.000000 6 6 6
-390.000000 -129.000000 -2143.000000 6 6 6
-390.000000 -137.000000 -2143.000000 5 5 5
-390.000000 -145.000000 -2143.000000 5 5 5
-392.000000 -154.000000 -2156.000000 5 5 5
-390.000000 -161.000000 -2143.000000 6 6 6
-392.000000 -170.000000 -2156.000000 5 5 5
-390.000000 -178.000000 -2143.000000 5 5 5
-390.000000 -186.000000 -2143.000000 5 5 5
-390.000000 -194.000000 -2143.000000 5 5 5
-390.000000 -202.000000 -2143.000000 5 5 5
-390.000000 -210.000000 -2143.000000 5 5 5
-390.000000 -218.000000 -2143.000000 5 5 5
-390.000000 -227.000000 -2143.000000 5 5 5
-390.000000 -235.000000 -2143.000000 6 6 6
-387.000000 -241.000000 -2129.000000 6 6 6
-385.000000 -248.000000 -2116.000000 7 7 7
-385.000000 -256.000000 -2116.000000 9 9 9
-385.000000 -264.000000 -2116.000000 6 6 6
-385.000000 -272.000000 -2116.000000 6 6 6
-385.000000 -280.000000 -2116.000000 5 5 5
-387.000000 -290.000000 -2129.000000 7 7 7
-387.000000 -298.000000 -2129.000000 7 7 7
-387.000000 -306.000000 -2129.000000 7 7 7
-387.000000 -314.000000 -2129.000000 5 5 5
-387.000000 -322.000000 -2129.000000 5 5 5
-387.000000 -331.000000 -2129.000000 6 6 6
-392.000000 -343.000000 -2156.000000 6 6 6
-390.000000 -349.000000 -2143.000000 7 7 7
-392.000000 -359.000000 -2156.000000 7 7 7
-392.000000 -368.000000 -2156.000000 6 6 6
-390.000000 -373.000000 -2143.000000 7 7 7
-390.000000 -382.000000 -2143.000000 7 7 7
-387.000000 -387.000000 -2129.000000 7 7 7
-387.000000 -395.000000 -2129.000000 7 7 7
-387.000000 -403.000000 -2129.000000 8 8 8
-387.000000 -412.000000 -2129.000000 9 9 9
-385.000000 -417.000000 -2116.000000 9 9 9
-385.000000 -425.000000 -2116.000000 10 10 10
-385.000000 -433.000000 -2116.000000 8 8 8
-387.000000 -444.000000 -2129.000000 8 8 8
-387.000000 -452.000000 -2129.000000 9 9 9
-387.000000 -460.000000 -2129.000000 11 11 11
-387.000000 -468.000000 -2129.000000 12 12 12
-387.000000 -476.000000 -2129.000000 11 11 11
-387.000000 -485.000000 -2129.000000 11 11 11
-387.000000 -493.000000 -2129.000000 13 13 13
-387.000000 -501.000000 -2129.000000 13 13 13
-387.000000 -509.000000 -2129.000000 14 14 14
-387.000000 -517.000000 -2129.000000 15 15 15
-385.000000 -522.000000 -2116.000000 13 13 13
-385.000000 -530.000000 -2116.000000 16 16 16
-385.000000 -538.000000 -2116.000000 17 17 17
-385.000000 -546.000000 -2116.000000 18 18 18
-385.000000 -554.000000 -2116.000000 17 17 17
-385.000000 -562.000000 -2116.000000 17 17 17
-385.000000 -570.000000 -2116.000000 17 17 17
-385.000000 -578.000000 -2116.000000 20 20 20
-383.000000 -583.000000 -2103.000000 20 20 20
-383.000000 -591.000000 -2103.000000 21 21 21
-385.000000 -603.000000 -2116.000000 20 20 20
-385.000000 -611.000000 -2116.000000 20 20 20
-385.000000 -619.000000 -2116.000000 21 21 21
-385.000000 -627.000000 -2116.000000 18 18 18
-383.000000 -631.000000 -2103.000000 23 23 23
-383.000000 -639.000000 -2103.000000 22 22 22
-383.000000 -647.000000 -2103.000000 26 26 26
-383.000000 -655.000000 -2103.000000 26 26 26
-380.000000 -659.000000 -2090.000000 27 27 27
-378.000000 -663.000000 -2078.000000 26 26 26
-380.000000 -675.000000 -2090.000000 30 30 30
-378.000000 -679.000000 -2078.000000 29 29 29
-378.000000 -687.000000 -2078.000000 29 29 29
-378.000000 -695.000000 -2078.000000 29 29 29
-378.000000 -703.000000 -2078.000000 31 31 31
-378.000000 -710.000000 -2078.000000 31 31 31
-378.000000 -718.000000 -2078.000000 31 31 31
-378.000000 -726.000000 -2078.000000 28 28 28
-378.000000 -734.000000 -2078.000000 28 28 28
-378.000000 -742.000000 -2078.000000 29 29 29
-378.000000 -750.000000 -2078.000000 27 27 27
-378.000000 -758.000000 -2078.000000 27 27 27
-378.000000 -766.000000 -2078.000000 27 27 27
-378.000000 -774.000000 -2078.000000 30 30 30
-378.000000 -782.000000 -2078.000000 28 28 28
-376.000000 -785.000000 -2065.000000 29 29 29
-376.000000 -793.000000 -2065.000000 28 28 28
-376.000000 -800.000000 -2065.000000 28 28 28
-376.000000 -808.000000 -2065.000000 32 32 32
-376.000000 -816.000000 -2065.000000 32 32 32
-376.000000 -824.000000 -2065.000000 31 31 31
-373.000000 -827.000000 -2053.000000 31 31 31
-376.000000 -840.000000 -2065.000000 32 32 32
-373.000000 -843.000000 -2053.000000 30 30 30
-376.000000 -856.000000 -2065.000000 29 29 29
-373.000000 -858.000000 -2053.000000 31 31 31
-373.000000 -866.000000 -2053.000000 33 33 33
-373.000000 -874.000000 -2053.000000 34 34 34
-373.000000 -882.000000 -2053.000000 33 33 33
-373.000000 -890.000000 -2053.000000 30 30 30
-371.000000 -892.000000 -2040.000000 32 32 32
-371.000000 -900.000000 -2040.000000 30 30 30
-371.000000 -907.000000 -2040.000000 31 31 31
-369.000000 -910.000000 -2028.000000 32 32 32
-369.000000 -917.000000 -2028.000000 33 33 33
-369.000000 -925.000000 -2028.000000 34 34 34
-369.000000 -933.000000 -2028.000000 33 33 33
-369.000000 -941.000000 -2028.000000 32 32 32
-369.000000 -948.000000 -2028.000000 29 29 29
-369.000000 -956.000000 -2028.000000 31 31 31
-369.000000 -964.000000 -2028.000000 30 30 30
-369.000000 -972.000000 -2028.000000 34 34 34
-369.000000 -979.000000 -2028.000000 37 37 37
-369.000000 -987.000000 -2028.000000 38 38 38
-367.000000 -989.000000 -2016.000000 39 39 39
-369.000000 -1002.000000 -2028.000000 39 39 39
-367.000000 -1004.000000 -2016.000000 39 39 39
-367.000000 -1012.000000 -2016.000000 38 38 38
-367.000000 -1020.000000 -2016.000000 40 40 40
-367.000000 -1027.000000 -2016.000000 40 40 40
-367.000000 -1035.000000 -2016.000000 39 39 39
-367.000000 -1043.000000 -2016.000000 38 38 38
-367.000000 -1050.000000 -2016.000000 38 38 38
-367.000000 -1058.000000 -2016.000000 41 41 41
-367.000000 -1066.000000 -2016.000000 38 38 38
-367.000000 -1073.000000 -2016.000000 39 39 39
-367.000000 -1081.000000 -2016.000000 40 40 40
-367.000000 -1089.000000 -2016.000000 40 40 40
-365.000000 -1090.000000 -2005.000000 40 40 40
-365.000000 -1098.000000 -2005.000000 41 41 41
-365.000000 -1106.000000 -2005.000000 40 40 40
-363.000000 -1107.000000 -1993.000000 41 41 41
-363.000000 -1114.000000 -1993.000000 41 41 41
-365.000000 -1129.000000 -2005.000000 40 40 40
-365.000000 -1136.000000 -2005.000000 41 41 41
-365.000000 -1144.000000 -2005.000000 42 42 42
-365.000000 -1151.000000 -2005.000000 41 41 41
-365.000000 -1159.000000 -2005.000000 41 41 41
-365.000000 -1167.000000 -2005.000000 41 41 41
-365.000000 -1174.000000 -2005.000000 38 38 38
-365.000000 -1182.000000 -2005.000000 37 37 37
-367.000000 -1196.000000 -2016.000000 38 38 38
-367.000000 -1204.000000 -2016.000000 39 39 39
-367.000000 -1212.000000 -2016.000000 38 38 38
-365.000000 -1213.000000 -2005.000000 36 36 36
-365.000000 -1220.000000 -2005.000000 37 37 37
-365.000000 -1228.000000 -2005.000000 44 44 44
-363.000000 -1228.000000 -1993.000000 42 42 42
-360.000000 -1228.000000 -1981.000000 40 40 40
-360.000000 -1236.000000 -1981.000000 42 42 42
-360.000000 -1243.000000 -1981.000000 42 42 42
-360.000000 -1251.000000 -1981.000000 44 44 44
-363.000000 -1266.000000 -1993.000000 42 42 42
-363.000000 -1274.000000 -1993.000000 41 41 41
-363.000000 -1281.000000 -1993.000000 42 42 42
-360.000000 -1281.000000 -1981.000000 42 42 42
-360.000000 -1289.000000 -1981.000000 42 42 42
-360.000000 -1296.000000 -1981.000000 42 42 42
-360.000000 -1304.000000 -1981.000000 42 42 42
-360.000000 -1311.000000 -1981.000000 40 40 40
-360.000000 -1319.000000 -1981.000000 39 39 39
-360.000000 -1326.000000 -1981.000000 40 40 40
-360.000000 -1334.000000 -1981.000000 42 42 42
-360.000000 -1341.000000 -1981.000000 43 43 43
-360.000000 -1349.000000 -1981.000000 40 40 40
-358.000000 -1349.000000 -1970.000000 42 42 42
-358.000000 -1356.000000 -1970.000000 43 43 43
-368.000000 885.000000 -1981.000000 36 36 36
-370.000000 883.000000 -1993.000000 38 38 38
-368.000000 870.000000 -1981.000000 40 40 40
-370.000000 867.000000 -1993.000000 40 40 40
-370.000000 860.000000 -1993.000000 39 39 39
-368.000000 847.000000 -1981.000000 38 38 38
-368.000000 840.000000 -1981.000000 42 42 42
-370.000000 837.000000 -1993.000000 45 45 45
-370.000000 829.000000 -1993.000000 44 44 44
-370.000000 822.000000 -1993.000000 45 45 45
-370.000000 814.000000 -1993.000000 44 44 44
-372.000000 812.000000 -2005.000000 44 44 44
-374.000000 808.000000 -2016.000000 41 41 41
-400.000000 856.000000 -2156.000000 33 33 33
-398.000000 843.000000 -2143.000000 33 33 33
-403.000000 845.000000 -2170.000000 38 38 38
-403.000000 837.000000 -2170.000000 39 39 39
-403.000000 829.000000 -2170.000000 47 47 47
-403.000000 820.000000 -2170.000000 46 46 46
-403.000000 812.000000 -2170.000000 45 45 45
-403.000000 804.000000 -2170.000000 46 46 46
-403.000000 796.000000 -2170.000000 41 41 41
-403.000000 787.000000 -2170.000000 41 41 41
-403.000000 779.000000 -2170.000000 39 39 39
-403.000000 771.000000 -2170.000000 34 34 34
-406.000000 768.000000 -2184.000000 31 31 31
-406.000000 759.000000 -2184.000000 28 28 28
-408.000000 756.000000 -2198.000000 26 26 26
-408.000000 747.000000 -2198.000000 24 24 24
-408.000000 739.000000 -2198.000000 28 28 28
-408.000000 731.000000 -2198.000000 27 27 27
-406.000000 718.000000 -2184.000000 29 29 29
-408.000000 714.000000 -2198.000000 27 27 27
-408.000000 705.000000 -2198.000000 28 28 28
-408.000000 697.000000 -2198.000000 29 29 29
-408.000000 689.000000 -2198.000000 28 28 28
-408.000000 680.000000 -2198.000000 33 33 33
-408.000000 672.000000 -2198.000000 32 32 32
-408.000000 664.000000 -2198.000000 26 26 26
-411.000000 659.000000 -2212.000000 18 18 18
-411.000000 651.000000 -2212.000000 18 18 18
-411.000000 643.000000 -2212.000000 21 21 21
-411.000000 634.000000 -2212.000000 26 26 26
-408.000000 622.000000 -2198.000000 30 30 30
-411.000000 617.000000 -2212.000000 33 33 33
-408.000000 605.000000 -2198.000000 33 33 33
-408.000000 597.000000 -2198.000000 35 35 35
-406.000000 584.000000 -2184.000000 38 38 38
-406.000000 576.000000 -2184.000000 39 39 39
-406.000000 568.000000 -2184.000000 38 38 38
-406.000000 560.000000 -2184.000000 39 39 39
-406.000000 551.000000 -2184.000000 38 38 38
-406.000000 543.000000 -2184.000000 38 38 38
-406.000000 535.000000 -2184.000000 35 35 35
-406.000000 526.000000 -2184.000000 31 31 31
-408.000000 521.000000 -2198.000000 30 30 30
-406.000000 510.000000 -2184.000000 28 28 28
-408.000000 504.000000 -2198.000000 27 27 27
-406.000000 493.000000 -2184.000000 28 28 28
-406.000000 485.000000 -2184.000000 29 29 29
-408.000000 479.000000 -2198.000000 30 30 30
-408.000000 471.000000 -2198.000000 32 32 32
-408.000000 463.000000 -2198.000000 31 31 31
-408.000000 454.000000 -2198.000000 30 30 30
-408.000000 446.000000 -2198.000000 26 26 26
-408.000000 438.000000 -2198.000000 23 23 23
-406.000000 426.000000 -2184.000000 23 23 23
-406.000000 418.000000 -2184.000000 22 22 22
-406.000000 410.000000 -2184.000000 21 21 21
-403.000000 399.000000 -2170.000000 21 21 21
-406.000000 393.000000 -2184.000000 22 22 22
-406.000000 385.000000 -2184.000000 21 21 21
-406.000000 376.000000 -2184.000000 23 23 23
-406.000000 368.000000 -2184.000000 20 20 20
-406.000000 360.000000 -2184.000000 18 18 18
-403.000000 349.000000 -2170.000000 19 19 19
-403.000000 341.000000 -2170.000000 21 21 21
-403.000000 333.000000 -2170.000000 18 18 18
-403.000000 324.000000 -2170.000000 17 17 17
-403.000000 316.000000 -2170.000000 16 16 16
-403.000000 308.000000 -2170.000000 16 16 16
-403.000000 300.000000 -2170.000000 17 17 17
-403.000000 291.000000 -2170.000000 13 13 13
-403.000000 283.000000 -2170.000000 14 14 14
-403.000000 275.000000 -2170.000000 17 17 17
-403.000000 267.000000 -2170.000000 15 15 15
-403.000000 258.000000 -2170.000000 16 16 16
-403.000000 250.000000 -2170.000000 16 16 16
-400.000000 240.000000 -2156.000000 14 14 14
-400.000000 232.000000 -2156.000000 13 13 13
-403.000000 225.000000 -2170.000000 12 12 12
-403.000000 217.000000 -2170.000000 13 13 13
-403.000000 209.000000 -2170.000000 12 12 12
-403.000000 200.000000 -2170.000000 13 13 13
-403.000000 192.000000 -2170.000000 11 11 11
-400.000000 183.000000 -2156.000000 9 9 9
-400.000000 175.000000 -2156.000000 9 9 9
-400.000000 166.000000 -2156.000000 9 9 9
-400.000000 158.000000 -2156.000000 9 9 9
-400.000000 150.000000 -2156.000000 9 9 9
-400.000000 142.000000 -2156.000000 10 10 10
-400.000000 133.000000 -2156.000000 10 10 10
-400.000000 125.000000 -2156.000000 9 9 9
-400.000000 117.000000 -2156.000000 8 8 8
-400.000000 109.000000 -2156.000000 7 7 7
-400.000000 101.000000 -2156.000000 7 7 7
-400.000000 92.000000 -2156.000000 6 6 6
-400.000000 84.000000 -2156.000000 6 6 6
-400.000000 76.000000 -2156.000000 6 6 6
-400.000000 68.000000 -2156.000000 6 6 6
-400.000000 60.000000 -2156.000000 6 6 6
-400.000000 51.000000 -2156.000000 6 6 6
-400.000000 43.000000 -2156.000000 6 6 6
-400.000000 35.000000 -2156.000000 6 6 6
-400.000000 27.000000 -2156.000000 5 5 5
-400.000000 18.000000 -2156.000000 4 4 4
-400.000000 10.000000 -2156.000000 6 6 6
-398.000000 2.000000 -2143.000000 6 6 6
-398.000000 -6.000000 -2143.000000 5 5 5
-398.000000 -14.000000 -2143.000000 5 5 5
-395.000000 -22.000000 -2129.000000 5 5 5
-398.000000 -31.000000 -2143.000000 5 5 5
-398.000000 -39.000000 -2143.000000 6 6 6
-398.000000 -47.000000 -2143.000000 6 6 6
-400.000000 -55.000000 -2156.000000 5 5 5
-400.000000 -64.000000 -2156.000000 5 5 5
-400.000000 -72.000000 -2156.000000 6 6 6
-398.000000 -80.000000 -2143.000000 6 6 6
-398.000000 -88.000000 -2143.000000 7 7 7
-398.000000 -96.000000 -2143.000000 7 7 7
-398.000000 -104.000000 -2143.000000 6 6 6
